-0.874735798370498,-0.026536087157875483,0.5791640280442709,-0.2908260278429847,0.9567759515837924,0.0,0.0
-0.6680290772524845,0.4559691044442761,0.7295767373928534,-0.3694317464037178,0.9292578677359149,0.0,0.0
-0.38778163540943045,0.8268371568000089,0.8509035245341184,-0.43796580889627973,0.8989916296817382,0.0,0.0
-0.06484482281437737,0.9952666362171313,0.9383074733335544,-0.4964641859455945,0.8680572055304755,0.0,0.0
0.2652305039074554,0.9200201319508784,0.988304064171637,-0.5455551744955801,0.8380749080965837,0.0,0.0
0.5661076368981803,0.6195206125592099,0.9989000907450211,-0.5861679192074577,0.8101895892271138,0.0,0.0
0.8046641837900599,0.16734084067633054,0.9696731229119208,-0.6193175591239963,0.785140599485656,0.0,0.0
0.9546383829480181,-0.3258098052199642,0.9017883476488092,-0.6459718496713998,0.7633612312870695,0.0,0.0
0.9995201585807313,-0.7391908477842096,0.7979521167226309,-0.6669812674560601,0.7450744854460576,0.0,0.0
0.9343686507169252,-0.9715921906288022,0.6623040529862428,-0.6830504145307668,0.7303712283553807,0.0,0.0
0.7663561352466374,-0.9661138797451976,0.500252016678587,-0.6947325728187889,0.7192681365558925,0.0,0.0
0.5139784559875352,-0.7240971967004738,0.3182565111024882,-0.7024350376494223,0.7117478611716755,0.0,0.0
0.2050188892364544,-0.3047962661308802,0.123573122745224,-0.7064276992992453,0.7077852115315599,0.0,0.0
-0.12651040896810992,0.1891294205289584,-0.07603673605835357,-0.7068506667051405,0.7073628029367238,0.0,0.0
-0.4441126687075084,0.6367496289241701,-0.27261525014307375,-0.7037187862737325,0.7104786202592058,0.0,0.0
-0.7128242935149631,0.9284713207390763,-0.45832545449176587,-0.6969221421980042,0.7171467964887976,0.0,0.0
-0.9030638666102196,0.9928708516677031,-0.6257636692994736,-0.6862224494844625,0.7273917444015598,0.0,0.0
-0.9938886539233752,0.8141809705265618,-0.7682546613236668,-0.6712460334578922,0.7412346204590325,0.0,0.0
-0.9753001081663789,0.4361511922464772,-0.880117764368662,-0.6514751897445461,0.7586699395305628,0.0,0.0
-0.8493445699832898,-0.04866360920015389,-0.9568933495204878,-0.6262415395612981,0.7796291003598409,0.0,0.0
-0.6298879942744539,-0.5215638619118831,-0.9955206164785154,-0.5947279815936459,0.8039270040927521,0.0,0.0
-0.341089501196518,-0.8667670910519801,-0.9944596180045154,-0.5559903254581883,0.8311887619529621,0.0,0.0
-0.014741792666890371,-0.9997555067434422,-0.9537526527594719,-0.50901538300313,0.8607574221963914,0.0,0.0
0.31322878243308516,-0.8879689066918555,-0.8750225789894467,-0.45283716546151226,0.8915932377361231,0.0,0.0
0.6067172201585943,-0.5587765492838215,-0.7614081162885409,-0.38673144254899716,0.9221923830437831,0.0,0.0
0.8334145208421879,-0.09277620459766088,-0.6174387147534618,-0.3104915565646629,0.9505761375618751,0.0,0.0
0.9683644611001854,0.39593899065726024,-0.4488539801017046,-0.2247452262365752,0.9744175610506364,0.0,0.0
0.9967109273197106,0.7877145121442345,-0.26237485370392877,-0.13120755857428368,0.991354919578743,0.0,0.0
0.9153333673769403,0.9866300485542645,-0.06543566986070695,-0.032717853715926476,0.9994646277123684,0.0,0.0
0.7331903200732922,0.9439841391523142,0.13411222764565714,0.06705679789321804,0.9977491597873226,0.0,0.0
0.47033320447102855,0.6702179898880674,0.3283134938514034,0.16421983210462288,0.9864237663111781,0.0,0.0
0.1556989372214318,0.23235910202965793,0.5094259371104293,0.2553347060049908,0.9668527229673323,0.0,0.0
-0.1760756199485871,-0.2623893978125999,0.6702291758433747,0.3379347820801636,0.9411695293943766,0.0,0.0
-0.4884666975156146,-0.6928958219201651,0.8043124923659141,0.4106987214202764,0.9117711117510524,0.0,0.0
-0.7470843777730236,-0.953757183235068,0.9063304079726637,0.4733215803287678,0.8808897102333968,0.0,0.0
-0.9234584470040598,-0.9811055226493881,0.972215790304539,0.5262239126576354,0.8503460435300969,0.0,0.0
-0.998172570485992,-0.7682450128678183,0.9993419970813103,0.5702407449187029,0.8214776277139645,0.0,0.0
-0.9630017611990899,-0.3672913304546965,0.9866275920404853,0.6063720474560829,0.7951810737586239,0.0,0.0
-0.8218178366308225,0.12358807938670624,0.9345794583884147,0.6356168956515353,0.7720046385626872,0.0,0.0
-0.5901631854602047,0.5842088171092893,0.8452725909664269,0.658879911803301,0.7522481384636817,0.0,0.0
-0.2935397664888722,0.9017948614087224,0.722267372754513,0.6769280167099493,0.7360492240286207,0.0,0.0
0.03539830273366068,0.9985900724399912,0.5704676336373782,0.6903771835472757,0.7234496143045008,0.0,0.0
0.36043951060072155,0.8508956066916382,0.39592515018183416,0.6996944461667672,0.7144422173999663,0.0,0.0
0.645801335803224,0.4948722204034305,0.20559838040260117,0.7052057979275077,0.7090026675333648,0.0,0.0
0.8600694058124532,0.01768685528840119,0.007075051999930937,0.70710456894205,0.7071089934241238,0.0,0.0
0.979655782867312,-0.4638288688518717,-0.19173033639936585,0.7054574044249955,0.7087523196025168,0.0,0.0
0.9913956682232857,-0.8317831092998796,-0.3828920413264772,0.700206489660776,0.713940383951583,0.0,0.0
0.8939966636005579,-0.9960878351411849,-0.5587890488516163,0.6911676151124609,0.7226944913445468,0.0,0.0
0.698181046279811,-0.916515519162193,-0.712408900359854,0.6780244325158153,0.7350393655523536,0.0,0.0
0.42550539533422893,-0.6125482394960996,-0.8376272571470276,0.6603201752931824,0.7509841983029875,0.0,0.0
0.10598751175115685,-0.15860778743465642,-0.929452058477416,0.6374495849407339,0.7704920678753845,0.0,0.0
-0.2251981244304875,0.33416538263076073,-0.9842225392918875,0.6086562334318268,0.7934340486168852,0.0,0.0
-0.5315925757064491,0.7451232126030157,-0.9997551733586199,0.5730442746777317,0.8195244104107408,0.0,0.0
-0.7794660696158047,0.9736488930495181,-0.975430723573431,0.5296189598280159,0.8482356732599087,0.0,0.0
-0.9415311780937563,0.9637913672852274,-0.9122189289890194,0.47737588874950615,0.8786991867758949,0.0,0.0
-0.9999467842073851,0.717964101410472,-0.812639844379108,0.4154611298945879,0.9096109330624343,0.0,0.0
-0.9482821412699473,0.2963541836370153,-0.6806633736071279,0.3434150029123949,0.9391837603870075,0.0,0.0
-0.7922248087111178,-0.19781357400426822,-0.5215510020869119,0.2614806301411173,0.9652087235727846,0.0,0.0
-0.5489545307989134,-0.6435496697397284,-0.3416460379628515,0.17090038141931543,0.9852883129473994,0.0,0.0
-0.24525198546765434,-0.9317223617435201,-0.14812072443163635,0.07406148866838469,0.997253676802559,0.0,0.0
0.0854493962686306,-0.9917769246391254,0.051309694960699495,-0.025654853044381205,0.9996708600910958,0.0,0.0
0.4067439865925538,-0.8090099069535975,0.24869455873205093,-0.1243626249994494,0.9922368353892362,0.0,0.0
0.683261714736121,-0.428169048838935,0.43616475524782494,-0.2183562220812057,0.9758691307129369,0.0,0.0
0.8845618203890808,0.05750252534912421,0.6062464393693456,-0.30472385550907777,0.9524407445524802,0.0,0.0
0.9884839585068266,0.529095475861036,0.7521589910744745,-0.38166861602407703,0.924299230521299,0.0,0.0
0.9835877454343449,0.8711474010323434,0.8680853373804215,-0.4484925405645624,0.8937865746686647,0.0,0.0
0.8704121862096487,0.9999120601031718,0.9494038606867011,-0.505353673298414,0.8629123158721282,0.0,0.0
0.661416337597256,0.8838633737085002,0.9928726480845371,-0.5529495369370927,0.8332147439892401,0.0,0.0
0.3796077390275217,0.5514141076171752,0.9967587361940652,-0.5922364162835918,0.8057642504030369,0.0,0.0
0.05600960214052269,0.08395943674184847,0.9609071989456205,-0.6242288011563624,0.7812415783910189,0.0,0.0
-0.2737544138215118,-0.40405143243560715,0.8867473239932281,-0.6498782247014828,0.7600383497290443,0.0,0.0
-0.5733818719904229,-0.7931364191664784,0.7772356315262264,-0.6700118098533687,0.7423504392515798,0.0,0.0
-0.8098879518350857,-0.988033948885742,0.6367380071391379,-0.6853086776550529,0.7282527146057766,0.0,0.0
-0.9572366196559435,-0.9410263090291437,0.4708556477503867,-0.6962970292363417,0.7177537510014456,0.0,0.0
-0.9992068341863537,-0.6636226092823331,0.2862017595567536,-0.703360443027366,0.7108333751198993,0.0,0.0
-0.931178257883166,-0.22374095013558368,0.09013791037146546,-0.706746519831062,0.7074668590871818,0.0,0.0
-0.7606398919015477,0.2709202968427898,-0.10951945285370121,-0.7065740931419533,0.7076390682407424,0.0,0.0
-0.5063656411097588,0.6992508064783751,-0.3048106211022167,-0.7028371106711937,0.7113508247435776,0.0,0.0
-0.19634756798201802,0.9563803314636136,-0.4879499517729242,-0.6954044303046318,0.7186185902916029,0.0,0.0
0.13528564459654605,0.9793545963764285,-0.6516362576815548,-0.6840155666615672,0.7294674115850928,0.0,0.0
0.45202578717835057,0.7625486999106625,-0.7893438823535511,-0.6682732345733131,0.7439159118831387,0.0,0.0
0.7190041704185947,0.35904428689111606,-0.8955828573547701,-0.6476347273803096,0.7619509563554808,0.0,0.0
0.9068301833542906,-0.13236668966664739,-0.9661177700083929,-0.6214061535200919,0.7834886038528985,0.0,0.0
0.9948267913584063,-0.5913696841443247,-0.9981366159327038,-0.5887467778326445,0.808317531414282,0.0,0.0
0.9733067903939693,-0.9055847552047066,-0.9903629047820123,-0.5486954505043564,0.8360223098672794,0.0,0.0
0.8446392335977563,-0.9980810948185003,-0.9431065498885319,-0.5002368723466992,0.8658886022721354,0.0,0.0
0.6229886314423488,-0.8462123731256282,-0.8582515129958178,-0.4424297625308834,0.8968031585731989,0.0,0.0
0.3327556359153647,-0.48716134980334147,-0.7391806966492228,-0.37461569551641505,0.9271801770275034,0.0,0.0
0.005890867724841415,-0.008836237703148543,-0.5906410785467989,-0.296706215570636,0.9549688066328402,0.0,0.0
-0.32162240316253093,0.47165229356133864,-0.41855446451842543,-0.20949807489744665,0.9778090593844301,0.0,0.0
-0.6137295156425877,0.836663893913208,-0.22978140481468803,-0.11490098616674833,0.9933769492885914,0.0,0.0
-0.8382735347671642,0.9968309933617175,-0.03184768561815004,-0.015923843321263453,0.9998732075687796,0.0,0.0
-0.9705352835374847,0.9129390999389944,0.16735570030280691,0.08367993073660644,0.996492683963067,0.0,0.0
-0.9959545808774181,0.6055278749869898,0.35988714257414267,0.18004463973738086,0.9836584405685932,0.0,0.0
-0.9117331152907114,0.1498623077152374,0.5380710201605928,0.26986936437580755,0.9628969447305342,0.0,0.0
-0.7271425000808526,-0.34249477911590703,0.6948037041545392,0.3508773542494714,0.9364214234386626,0.0,0.0
-0.46250359753342357,-0.7509971990964674,0.8238367570437177,0.4219336287457689,0.9066267219387633,0.0,0.0
-0.1469494742886635,-0.9756293127952373,0.9200260381967907,0.4828776375387375,0.875687836597613,0.0,0.0
0.18478174456066745,-0.9613933444599089,0.9795367845170094,0.5342203480185377,0.8453452665999569,0.0,0.0
0.4961710604381805,-0.7117747556357236,0.9999964903456066,0.576839716361698,0.8168573569649451,0.0,0.0
0.7529388356821598,-0.2878888826194756,0.980589491775534,0.6117449463001907,0.791055068042786,0.0,0.0
0.926818505417785,0.2064822293378111,0.9220894845974522,0.6399241202951245,0.7684381043809002,0.0,0.0
0.9986683336530017,0.6502992902336991,0.8268286794901034,0.6622606878648668,0.7492735023399356,0.0,0.0
0.9605786524821501,0.9349004048997503,0.6986048241402639,0.6794965475863161,0.7336787047599769,0.0,0.0
0.8167426066363169,0.9906052946548402,0.5425297990269575,0.6922222367026963,0.7216844012546733,0.0,0.0
0.5829945465022385,0.803775459710974,0.36482582287824245,0.7008804575291303,0.7132787563454815,0.0,0.0
0.2850668861254725,0.4201533595806971,0.17257739244581813,0.705774350361068,0.7084367059747909,0.0,0.0
-0.044242678085070965,-0.06633693633562374,-0.026551154023966794,0.7070756169685625,0.7071379440310968,0.0,0.0
-0.3686817380855819,-0.5365856366554476,-0.22462118976982778,0.7048299317855264,0.7093763227365362,0.0,0.0
-0.6525340606816638,-0.875459459043705,-0.4137362875127194,0.6989584747732438,0.7151622546965553,0.0,0.0
-0.8645514486106083,-0.9999902731420214,-0.5863570250928222,0.6892553103915029,0.7245185415826935,0.0,0.0
-0.9813937329404654,-0.8796885924951523,-0.7356015584390794,0.6753810973071475,0.7374688965645898,0.0,0.0
-0.9901982014130795,-0.5440084641932424,-0.8555199789753223,0.6568545997252286,0.7540172642717207,0.0,0.0
-0.8899956043668333,-0.07513609089835323,-0.9413315176992298,0.633045072719298,0.7741149371416487,0.0,0.0
-0.6918168556589677,0.41213221791123295,-0.9896151393558494,0.6031712512350677,0.7976117110997826,0.0,0.0
-0.41747868229827934,0.7984961861625556,-0.9984459283175113,0.5663167745944414,0.8241876672293443,0.0,0.0
-0.09718190589320902,0.989360439513222,-0.9674718288954816,0.5214773661868417,0.8532651150462173,0.0,0.0
0.233813248238493,0.9379947521194415,-0.8979276806892913,0.46766050780392016,0.8839081679906458,0.0,0.0
0.5390688120199738,0.6569752356961871,-0.7925859894286711,0.40405925924002417,0.9147328107280304,0.0,0.0
0.7849803886813105,0.21510526876214117,-0.6556463959192523,0.3303095322019353,0.9438726677558467,0.0,0.0
0.9444765299905227,-0.2794299700233931,-0.4925682496163913,0.24680385114997505,0.9690654565392067,0.0,0.0
0.9999989266102606,-0.7055510066862999,-0.3098529615903106,0.1549734093283659,0.9879186415900566,0.0,0.0
0.9454353340247703,-0.958928549960796,-0.11478481378318722,0.057392720307496356,0.9983516793473657,0.0,0.0
0.7867924457459442,-0.9775269404025313,0.0848594423250458,-0.04242979016900634,0.9990994509588194,0.0,0.0
0.5415346398064029,-0.7567926433898263,0.28112062025723483,-0.14058889320789295,0.990068059835575,0.0,0.0
0.23666139336428604,-0.3507691132091307,0.46617440618717204,-0.23347555488689464,0.9723626716767034,0.0,0.0
-0.09426498463818891,0.14113492938566014,0.6326432896408476,-0.3183526800489948,0.9479723472262376,0.0,0.0
-0.41481409742051656,0.5984842190140996,0.7738906815578891,-0.3936173560075417,0.9192743752817394,0.0,0.0
-0.689697940935389,0.9093036989610448,0.8842854941544844,-0.45873636956845953,0.8885724186779318,0.0,0.0
-0.8886556228712207,0.9974939203271522,0.9594266346233836,-0.5139806341528008,0.8578017881281693,0.0,0.0
-0.9897846664922354,0.8414628411805024,0.996318462815671,-0.5601088678472909,0.8284190100177724,0.0,0.0
-0.9819521690440836,0.47941231147032193,0.9934902179602213,-0.5980988355277413,0.8014223499131776,0.0,0.0
-0.8660203796818281,-1.50721766814562e-05,0.9510546532543747,-0.6289610022130452,0.7774368512587769,0.0,0.0
-0.6547517778168483,-0.4794387656291727,0.8707035407497848,-0.6536289931070487,0.7568151289250669,0.0,0.0
-0.3714041014380902,-0.8414791282441333,0.7556402257394118,-0.6729059499574768,0.739728046319609,0.0,0.0
-0.04716999327056645,-0.9974960526543551,0.6104519194894429,-0.6874454561012706,0.7262360118348,0.0,0.0
0.2822568758408213,-0.9092911544837531,0.440926821601849,-0.6977508251574113,0.7163405516876394,0.0,0.0
0.5806111842123143,-0.5984600690578582,0.25382336276203626,-0.704182171376554,0.7100193444656289,0.0,0.0
0.8150482674180848,-0.141105086702016,0.056600767434840576,-0.7069650140599119,0.7072485198961314,0.0,0.0
0.9597598595447143,0.3507973420904214,-0.14287832187593194,-0.706197022634387,0.7080153707528721,0.0,0.0
0.9988152247235795,0.756812347054107,-0.3366613033721151,-0.7018512402689691,0.7123235476473523,0.0,0.0
0.9279149098302132,0.9775332947055968,-0.5170226610990435,-0.6937751764583365,0.7201916443074052,0.0,0.0
0.7548640545425608,0.9589199991476417,-0.6767719568873076,-0.6816859301854722,0.7316449224775414,0.0,0.0
0.4987131538963941,0.705529644294206,-0.8095404904318835,-0.6651623531916455,0.746698763824176,0.0,0.0
0.1876608634432975,0.27940102631098374,-0.9100351992756844,-0.643636557479361,0.7653312889697619,0.0,0.0
-0.14405028097207678,-0.21513470736462095,-0.9742496765064971,-0.6163892344177612,0.7874416243086761,0.0,0.0
-0.45990349068959124,-0.6569979615921431,-0.9996238935576389,-0.582556721347459,0.8127900506360171,0.0,0.0
-0.7251277153509738,-0.9380052012169503,-0.9851462604682474,-0.5411627299846131,0.8409178911615574,0.0,0.0
-0.9105254524828937,-0.9893560535087885,-0.9313939547827833,-0.49119342549715433,0.8710505259446042,0.0,0.0
-0.9956869868891794,-0.7984780389030323,-0.8405099113037167,-0.43173813615104556,0.9019989921240608,0.0,0.0
-0.9712372167493518,-0.412104752478659,-0.716117390043384,-0.36221246631554105,0.932095558001224,0.0,0.0
-0.8398677220842008,0.07516615000819327,-0.5631755282811168,-0.28265534622567906,0.9592215360645534,0.0,0.0
-0.6160404591886565,0.5440337574619116,-0.38778163540943045,-0.19403938416964092,0.9809937397308233,0.0,0.0
-0.3243957001582843,0.879702927248347,-0.19692811244968383,-0.0984687761611191,0.9951401409456516,0.0,0.0
0.0029605187502625353,0.9999901397322173,0.001776312910836964,0.0008881564554187583,0.9999996055889776,0.0,0.0
0.329990825673782,0.8754448901342752,0.2004099222810683,0.10021011705310191,0.9949662971378497,0.0,0.0
0.6206937271308905,0.5365601992235288,0.39105382048004866,0.19568208125290978,0.9806673865671937,0.0,0.0
0.8430668722988662,0.06630685835171127,0.5661076368981803,0.2841520387704676,0.958779233641711,0.0,0.0
0.972630067242408,-0.4201807139771352,0.7185925282891343,0.36353628707972824,0.9315800384166062,0.0,0.0
0.9951202041717043,-0.8037933932096717,0.8424294032270538,0.4328810937257143,0.9014510295600251,0.0,0.0
0.9080614314579732,-0.9906094165098637,0.9326812762980158,0.4921614169688548,0.8705039572840604,0.0,0.0
0.7210377105017316,-0.9348897059372352,0.9857500901289485,0.5419698710413867,0.8403979169913396,0.0,0.0
0.45463775472898854,-0.6502763899328083,0.9995201585807313,0.5832206524643728,0.8123137759136129,0.0,0.0
0.13818849827448118,-0.20645273449087873,0.9734425124781552,0.6169279302254412,0.7870196496325572,0.0,0.0
-0.19347339203846847,0.2879177506452518,0.9085567852785591,0.6440664866451252,0.7649695162427094,0.0,0.0
-0.5038365497421304,0.711795928940826,0.8074497661666465,0.6654975999538846,0.7463999895870974,0.0,0.0
-0.758734302933664,0.9614016390808037,0.6741522729327462,0.6819379003822906,0.7314100765112503,0.0,0.0
-0.9301059501867618,0.9756226979194443,0.5139784559875352,0.6939526081158022,0.7200206786539368,0.0,0.0
-0.9990858539416301,0.7509772942762827,0.33331393995491093,0.701960338622388,0.71221603674808,0.0,0.0
-0.9580802851071097,0.3424664577455166,0.13936124896924576,0.7062416143981923,0.7079708907096641,0.0,0.0
-0.8116033871367005,-0.14989211157661958,-0.06014733523295702,0.7069466643828088,0.7072668617417476,0.0,0.0
-0.5757802315476739,-0.6055518643146514,-0.257258034985328,0.7041002361612316,0.7101005967028177,0.0,0.0
-0.27657167156668827,-0.9129514013088668,-0.4441126687075084,0.6976024292233524,0.716485066656436,0.0,0.0
0.05308358714605824,-0.9968285949694307,-0.6132619318068891,0.687225400993311,0.7264442499115696,0.0,0.0
0.3768950803846309,-0.8366473829688406,-0.7579623769450643,0.6726065703515772,0.7400002712971724,0.0,0.0
0.6592156613365348,-0.47162571251991114,-0.872445254003028,0.6532400043302102,0.757150907509637,0.0,0.0
0.8689657562142357,0.008866380875648453,-0.9521464919441047,0.6284694209667266,0.7778342927061954,0.0,0.0
0.9830547935520217,0.4871876750070059,-0.9938886539233752,0.597489119330301,0.801877018177913,0.0,0.0
0.988923155335729,0.8462284350324767,-0.996007611667735,0.5593635094682573,0.8289224718122647,0.0,0.0
0.8859248164599484,0.9980829609135574,-0.9584188890186744,0.5130815517340979,0.8583398634982127,0.0,0.0
0.6853984631171399,0.9055719686028203,-0.8826210297301447,0.45766749539078533,0.8891234243133659,0.0,0.0
0.4094192609720471,0.591345375451585,-0.7716358552579918,0.39236871823976355,0.9198080174399902,0.0,0.0
0.08836868610400143,0.13233681049883225,-0.6298879942744539,0.3169257959564758,0.9484503359993891,0.0,0.0
-0.2424100534306821,-0.35907242107165305,-0.4630284866857027,0.23188898374554925,0.9727422573413043,0.0,0.0
-0.5465028137956757,-0.7625682008753122,-0.2777094945036767,0.13888161014801567,0.9903089913570887,0.0,0.0
-0.7904332067228887,-0.9793606896089245,-0.08131910113879019,0.0406596063166249,0.9991730562891381,0.0,0.0
-0.947347884785573,-0.9563715251281321,0.11831322817125059,-0.05915697887844107,0.998248692385808,0.0,0.0
-0.9999727218865074,-0.6992292566729736,0.31322878243308516,-0.1566639897630429,0.987651960111215,0.0,0.0
-0.9425144545582509,-0.2708912797114064,0.49565689358989423,-0.24836572783831062,0.9686663332826977,0.0,0.0
-0.7812984397872175,0.22377033018717848,0.6583247285350505,-0.33170721735020725,0.9433823837436136,0.0,0.0
-0.5340723210853643,0.6636451589928438,0.7947472340173191,-0.40527739048657674,0.9141937632473712,0.0,0.0
-0.2280522595008612,0.9410365074429887,0.8994856752492519,-0.4686999068996953,0.8833574572460556,0.0,0.0
0.10307318760914584,0.9880292990755299,0.9683644611001854,-0.5223493793285295,0.8527315673264945,0.0,0.0
0.42285170872096384,0.7931180595679168,0.9986376117378207,-0.5670380514404612,0.8236915977588972,0.0,0.0
0.6960801312247415,0.4040238581187374,0.9890982321786865,-0.603759920482297,0.7971662050157485,0.0,0.0
0.8926798016640193,-0.08398947462256867,0.9401266273825573,-0.633518381855915,0.7737276393219149,0.0,0.0
0.9910078276098037,-0.5514392547409379,0.8536751406938125,-0.6572276864021891,0.7536920911263604,0.0,0.0
0.9802396594403116,-0.8838774731823718,0.7331903200732922,-0.6756664924634677,0.7372074273649953,0.0,0.0
0.8615607228728206,-0.999911659884212,0.5834755151072989,-0.6894628493257012,0.7243210471881135,0.0,0.0
0.6480359200609418,-0.8711325991081119,0.4104993826174394,-0.6990953968335372,0.715028409314035,0.0,0.0
0.363171365373259,-0.5290698962588196,0.22115793514834708,-0.7049010357615387,0.70930566738347,0.0,0.0
0.038326688763193305,-0.057472430847665464,0.022999618709098966,-0.7070833982183318,0.7071301633815489,0.0,0.0
-0.290737223821187,0.42819629005609655,-0.1760756199485871,-0.7057190820183156,0.708491762319948,0.0,0.0
-0.5877950071674065,0.8090276252864301,-0.36813127927767236,-0.7007601997851723,0.7133969038319729,0.0,0.0
-0.8201447262427328,0.9917807820218032,-0.545510706207386,-0.6920327725586805,0.7218660829438834,0.0,0.0
-0.9622079049255194,0.9317114137542325,-0.7011423427391804,-0.679231257100259,0.7339243144752747,0.0,0.0
-0.9983453608739179,0.6435265968280777,-0.828821646648584,-0.6619103921246505,0.7495829725903539,0.0,0.0
-0.9245788622322788,0.19778402522372224,-0.9234584470040598,-0.6394769582783608,0.7688102625687665,0.0,0.0
-0.7490290756904328,-0.2963829737144291,-0.9812798732191279,-0.6111864004374532,0.7914866921940692,0.0,0.0
-0.49102159389846933,-0.7179850839697136,-0.9999807674966553,-0.5761529822640012,0.8173418752445623,0.0,0.0
-0.1789594561993498,-0.9637994050640022,-0.9788155841958844,-0.5333873462145147,0.8458711124623168,0.0,0.0
0.15280363140987505,-0.9736420181192547,-0.9186281123844159,-0.4818810557184492,0.8762366393501662,0.0,0.0
0.46774516204513333,-0.7451031081864141,-0.8218178366308225,-0.4207603665339567,0.9071718216270886,0.0,0.0
0.7311944485494448,-0.33413697099017103,-0.6922442771269088,-0.34952344430578774,0.9369276182718805,0.0,0.0
0.9141493844819943,0.15863755013872718,-0.535073122797084,-0.2683456780041524,0.9633226858620594,0.0,0.0
0.9964691731217737,0.6125720663156844,-0.3565702915822329,-0.17838151189141163,0.983961399758819,0.0,0.0
0.9690915493778455,0.9165275764608679,-0.163852128064609,-0.08192793464889367,0.9966382561010623,0.0,0.0
0.8350304092772493,0.9960851708717215,0.03539830273366068,0.017699152235799723,0.9998433577366675,0.0,0.0
0.6090440218832924,0.8317663757683622,0.23323751490774314,0.11662984754936333,0.9931754521033092,0.0,0.0
0.31601034890291146,0.4638021630104179,0.4217782833859938,0.2111189926825948,0.9774603679580499,0.0,0.0
-0.011811673276965893,-0.01771699491840461,0.5935040827039737,0.29817515922343407,0.9545111704019391,0.0,0.0
-0.3383333943242765,-0.49489841458940237,0.741568747154996,0.3759092134533186,0.9266564968967235,0.0,0.0
-0.6276093089969687,-0.8509114421832985,0.8600694058124532,0.4435425956805447,0.8962532933367469,0.0,0.0
-0.8477941578926608,-0.9985916721566993,0.9442818113661253,0.5011766834473329,0.8653449785887313,0.0,0.0
-0.9746486480944947,-0.9017818336840362,0.9908486809542003,0.5494772368058376,0.8355086871075736,0.0,0.0
-0.9942078625736555,-0.5841843515845697,0.9979135404364571,0.5893884182561508,0.8078497957080343,0.0,0.0
-0.9043186035449188,-0.1235581660756696,0.9651947361597926,0.6219254667913088,0.7830764418346478,0.0,0.0
-0.7148764296291646,0.36731936773024515,0.8939966636005579,0.6480478224927713,0.7615996453271086,0.0,0.0
-0.4467362923245925,0.7682643096049905,0.7871577652331794,0.6685937547618458,0.7436278579326199,0.0,0.0
-0.1294166955768906,0.9811113543339269,0.6489373707859244,0.6842544632830817,0.7292433266593406,0.0,0.0
0.20214988141565363,0.9537481220672112,0.48484589120574,0.6955700045491781,0.7184583277904547,0.0,0.0
0.5114625648577341,0.6928740863898232,0.30142513596285736,0.7029351575527556,0.7112539379689105,0.0,0.0
0.7644703254688606,0.2623603095356538,0.10598751175115685,0.7066080524564087,0.707605158406693,0.0,0.0
0.933320523748862,-0.23238842122852268,-0.09367550009112813,0.7067175835668739,0.7074957647063327,0.0,0.0
0.9994250986403259,-0.6702403616464259,-0.28960396535491445,0.7032675954980534,0.7109252345516978,0.0,0.0
0.9555068548140759,-0.9439940860834779,-0.4739868344181481,0.696137012791446,0.7179089492559638,0.0,0.0
0.8064005807754863,-0.9866251353025733,-0.6394733441450939,0.6850758900214421,0.7284717049490178,0.0,0.0
0.568520805817988,-0.787695941645058,-0.7794660696158047,0.6696981552394851,0.7426334094752476,0.0,0.0
0.2680547883888574,-0.3959113096164656,-0.8883839426383546,0.6494729664942654,0.7603846827712528,0.0,0.0
-0.06192033725605731,0.09280621889587708,-0.9618847513255586,0.6237185071053979,0.7816490413825209,0.0,0.0
-0.3850788940053822,0.5588015482924706,-0.997038250380271,0.5916051550941597,0.8062278464962713,0.0,0.0
-0.6658456142830841,0.8879827697817493,-0.9924429807284667,0.5521795799698777,0.8337252014088872,0.0,0.0
-0.8733119827746476,0.9997548397466827,-0.9482821412699473,0.5044270579409705,0.8634543087025605,0.0,0.0
-0.98463883456251,0.8667520572726362,-0.8663162853163362,0.44739389668842267,0.8943370176873754,0.0,0.0
-0.987570629887534,0.5215381421434596,-0.7498131328862885,0.38038950117884573,0.9248263768907702,0.0,0.0
-0.8817846188147811,0.048633500538969116,-0.603417297020244,0.303268288535212,0.9529052131082731,0.0,0.0
-0.6789263715175016,-0.43617831815008895,-0.43296511771538676,0.21674606156149376,0.9762280188550116,0.0,0.0
-0.4013277627886875,-0.8141984723053474,-0.24525198546765434,0.12264029235682448,0.9924511870568913,0.0,0.0
-0.0795485428747221,-0.9928744442758198,-0.04776143049672075,0.023880719136147987,0.999714814961517,0.0,0.0
0.2509878664713192,-0.9284601245807608,0.15163322198820756,-0.07581787817648049,0.9971216823180691,0.0,0.0
0.5538939986002748,-0.6367263852094576,0.344982736418755,-0.1725726874658501,0.9849967855484676,0.0,0.0
0.7958240965274552,-0.18909982012986337,0.5245788778042787,-0.2630168083039918,0.9647912512816342,0.0,0.0
0.9501450175162586,0.30482497600430924,0.683261714736121,-0.34478306474044795,0.9386823947790777,0.0,0.0
0.9998681720891927,0.7241179868699296,0.814705063258458,-0.416648791485996,0.9090675357492748,0.0,0.0
0.9395197317131483,0.9661216600521149,0.9136686918591765,-0.4783861457808381,0.8781495860757178,0.0,0.0
0.7757432212749978,0.9715850561826999,0.9762072329637521,-0.5304643831850347,0.8477072243246018,0.0,0.0
0.5265681592876307,0.7391705453463161,0.9998274722901326,-0.5737419878373812,0.8190360989556018,0.0,0.0
0.21942525837900473,0.32578130553514806,0.9835877454343449,-0.6092243460593834,0.7929979168752694,0.0,0.0
-0.11187331508333885,-0.16737055989126504,0.9281354790587077,-0.6379050509990268,0.7701150212208102,0.0,0.0
-0.4308561907694951,-0.6195442750039529,0.8356813800338723,-0.6606777143006816,0.7506696729097473,0.0,0.0
-0.702407785577371,-0.9200319442337003,0.709911301532188,-0.678296121032689,0.7347886581813902,0.0,0.0
-0.8966340414842797,-0.9952637062792294,0.5558392996930657,-0.6913628421767356,0.7225077303789256,0.0,0.0
-0.9921533460282733,-0.8268202019923669,0.3796077390275217,-0.700332073200687,0.7138171945578415,0.0,0.0
-0.9784503507933796,-0.4559422758951242,0.18824241572844258,-0.7055177475234945,0.7086922519185422,0.0,0.0
-0.8570335651843123,0.026566220884026468,-0.01062753865243582,-0.7071017894652005,0.7071117728726565,0.0,0.0
-0.6412692904982377,0.5025703802614231,-0.20907380660436525,-0.7051397983113189,0.709068307596294,0.0,0.0
-0.35491017584493534,0.8555277827960506,-0.39918496165754186,-0.6995629101001908,0.7145710145340017,0.0,0.0
-0.02948038146667341,0.9990221465276736,-0.5733818719904229,-0.6901755001238696,0.7236420240897887,0.0,0.0
0.2991947933510258,0.8979210466738997,-0.7247198564981747,-0.6766491467313476,0.7363055970368141,0.0,0.0
0.5949327780232085,0.5769775585030581,-0.8471655473131,-0.6585142317331797,0.7525682737166509,0.0,0.0
0.8251769290156802,0.11476984121483252,-0.9358374211421241,-0.6351520895667072,0.7723870940914572,0.0,0.0
0.9645805640008392,-0.3755375359409301,-0.9872004101959753,-0.6057931742270375,0.7956221653900363,0.0,0.0
0.9977972794498907,-0.7739002269689113,-0.9992068341863537,-0.5695306921225821,0.8219700668092315,0.0,0.0
0.9211703764593979,-0.982785151720906,-0.9713780348772248,-0.5253645527886739,0.8508772453610196,0.0,0.0
0.7431354124994626,-0.9510499955011914,-0.9048234586781893,-0.4722960263169759,0.8814399942850305,0.0,0.0
0.48329156372825655,-0.68646463135462,-0.8021964265172008,-0.40949502876681854,0.912312348603954,0.0,0.0
0.17024402798118987,-0.253808784161444,-0.6675883543081758,-0.3365510788206978,0.9416652119222757,0.0,0.0
-0.16154501010937766,0.24098830528525864,-0.5063656411097588,-0.25378488091979057,0.9672606857598047,0.0,0.0
-0.47555018687189876,0.676783052837157,-0.32495572772947895,-0.16253771551254118,0.9867023315245407,0.0,0.0
-0.737203894702364,0.9468777054203809,-0.1305908549417222,-0.06529602604363087,0.9978659373798214,0.0,0.0
-0.9177016954266399,0.985143672202234,0.06898026312927355,0.03449015602595269,0.9994050375785112,0.0,0.0
-0.9971732887740798,0.7822121099422712,0.2658013557891272,0.13292217975764256,0.9911264773622369,0.0,0.0
-0.966869956386511,0.3877677425673905,0.45202578717835057,0.22634311297193593,0.9740476349800216,0.0,0.0
-0.830127674166852,-0.10161569206079699,0.6202293768826311,0.3119320946438533,0.9501043986484319,0.0,0.0
-0.6019998676776046,-0.5661200613013454,0.7637063785775808,0.3879945218628471,0.9216616792535213,0.0,0.0
-0.3076002391181551,-0.8920184954079421,0.8767368169734758,0.45392010406010036,0.8910423890758887,0.0,0.0
0.020661902392028204,-0.9995196916060495,0.9548145251796623,0.5099274480369967,0.8602174130639741,0.0,0.0
0.3466494554970303,-0.8623036078310824,0.9948267913584063,0.5567472691503194,0.8306819356972087,0.0,0.0
0.6344757194242503,-0.5139655269693756,0.9951784527231691,0.5953478387654855,0.8034680770741707,0.0,0.0
0.8524550211789225,-0.03979075993115771,0.955855489645069,0.6267419273701295,0.7792268966587174,0.0,0.0
0.9765908679435658,0.4441261728894752,0.8784255845712508,0.651871836983121,0.7583291555441155,0.0,0.0
0.9932176275626936,0.8193055291449822,0.7659756234728017,0.671552136560463,0.7409573050325351,0.0,0.0
0.9005049247916632,0.9938903175865266,0.6229886314423488,0.6864485068761714,0.7271784151138391,0.0,0.0
0.7086591401823227,0.9251360931462582,0.4551650486306003,0.6970760225142602,0.7169972237294219,0.0,0.0
0.43879982937776285,0.6298762878545608,0.2691954716863202,0.7038058786854997,0.7103923459101539,0.0,0.0
0.12063475344218023,0.18040079959254857,0.07249392078135491,0.7068740271779113,0.7073394586061785,0.0,0.0
-0.2108105329134813,-0.3132430961075599,-0.12709773397738078,0.7063881478112763,0.7078246849550772,0.0,0.0
-0.5190485083079905,-0.7301941571456378,-0.32162240316253093,0.7023311859425896,0.7118503390829253,0.0,0.0
-0.7701464538863743,-0.9683682221029407,-0.5033250020717746,0.6945607778223624,0.7194340316601621,0.0,0.0
-0.9364619742512132,-0.9694519732670104,-0.6649616214823083,0.6828046658395902,0.7306009774888654,0.0,0.0
-0.999686041170214,-0.7331800705557395,-0.8000883194520741,0.6666530344459684,0.7453681853044054,0.0,0.0
-0.9528585632241381,-0.31740011602352985,-0.9033180209499903,0.6455499418845699,0.763718058273358,0.0,0.0
-0.8011345951780408,0.17609045662727782,-0.9705352835374847,0.6187881003403263,0.7855579462249811,0.0,0.0
-0.5612168380689267,0.6264679441263539,-0.9990603670715322,0.5855146083286465,0.8106618551737536,0.0,0.0
-0.2595169038660346,0.9234642300699232,-0.9877560664877367,0.5447601046995044,0.8385919319477054,0.0,0.0
0.07075223608034517,0.9943642655514137,-0.9370730485775958,0.49550959309201237,0.8686024655466897,0.0,0.0
0.3932325377688789,0.8218092491597738,-0.8490318853256678,0.4368371435580261,0.8995406105385484,0.0,0.0
0.6724234000829805,0.44804666697426215,-0.7271425000808526,0.3681222549910685,0.929777395606223,0.0,0.0
0.8775897877771157,-0.03541336546034254,-0.5762642379886634,0.2893423888425858,0.957225669327179,0.0,0.0
0.986145731866738,-0.510202970945957,-0.4024121392348271,0.2013860695397256,0.9795119453050795,0.0,0.0
0.9861407310350926,-0.8600770951933222,-0.2125171383746505,0.106265500409872,0.9943377914082514,0.0,0.0
0.8775753358042688,-0.9993743503000143,-0.014149749844074282,0.007074874930900683,0.9999749727591747,0.0,0.0
0.6724010879303667,-0.8939899100543044,0.18478174456066745,-0.09239429720170017,0.995722498412386,0.0,0.0
0.39320482169452653,-0.5697255608391865,0.3763465739222897,-0.1883005586314067,0.9821114496935162,0.0,0.0
0.07072216723899125,-0.10597252445706083,0.5529076530119208,-0.277419821407926,0.9607487927080598,0.0,0.0
-0.2595460153126923,0.3837262818331512,0.7074260487769514,-0.3575766691657403,0.9338837859542988,0.0,0.0
-0.5612417873550457,0.7794755114086689,0.8337416003892464,-0.4277322335608333,0.9039054908413051,0.0,0.0
-0.8011526357338304,0.9843819506325049,0.926818505417785,-0.4877984203669069,0.8729562996436593,0.0,0.0
-0.9528677090350369,0.9482773568207633,0.9829460813802383,-0.5383302537837641,0.8427339662438604,0.0,0.0
-0.9996852854095013,0.6800013937302881,0.9998866989437912,-0.5802255748995007,0.8144558196934589,0.0,0.0
-0.936451400117644,0.24523737357693737,0.9769649891453983,-0.6144967092260879,0.7889193839362224,0.0,0.0
-0.7701272254451519,-0.24956930858045798,0.91509476822108,-0.6421250082350933,0.7665999437771186,0.0,0.0
-0.51902274234336,-0.683272719963432,0.8167426066363169,-0.6639823641492629,0.7477482330963782,0.0,0.0
-0.21078106590019152,-0.9496871395301657,0.6858294947053,-0.6807973991438366,0.7324717751005753,0.0,0.0
0.12066467759534041,-0.9835850258430133,0.5275745250805048,-0.6931473061522502,0.7207959572402433,0.0,0.0
0.4388269164372557,-0.7766669941024745,0.34828682399845023,-0.7014620769850468,0.7127067802061547,0.0,0.0
0.7086804082392084,-0.37959379499727586,0.1551140263261945,-0.7060329169517863,0.708179017043397,0.0,0.0
0.9005180325283481,0.11041720391967796,-0.044242678085070965,-0.7070202060014192,0.7071933457730712,0.0,0.0
0.9932211319994695,0.5733942203824812,-0.24183556653692886,-0.7044585982543909,0.7097450833541988,0.0,0.0
0.9765843832906294,0.8959843338731037,-0.42978723410722025,-0.6982581873008019,0.7158460056935418,0.0,0.0
0.8524392613064734,0.9992062338855137,-0.6006046409256912,-0.6882015290455566,0.7255195761792772,0.0,0.0
0.6344524192752989,0.8577875993070563,-0.7474778360280117,-0.673937079581509,0.7387887470482661,0.0,0.0
0.346621180094276,0.5063526440298443,-0.8645514486106083,-0.6549706297699864,0.7556543350889396,0.0,0.0
0.020631764464494468,0.030944901828293042,-0.9471581231869611,-0.630657994868324,0.7760608826043645,0.0,0.0
-0.30762892180334184,-0.45203923158200526,-0.9920045923221471,-0.6002049896099312,0.799846216748784,0.0,0.0
-0.6020239375552833,-0.8243483956816764,-0.9973029688129642,-0.5626849581205483,0.826671420762129,0.0,0.0
-0.830144481477884,-0.9948283223630832,-0.9628420231087184,-0.5170896995461612,0.8559312137217925,0.0,0.0
-0.9668776508794494,-0.9217395798793158,-0.8899956043668333,-0.46243488776065667,0.8866532437101827,0.0,0.0
-0.997171023392149,-0.6229768414494085,-0.7816678694223804,-0.39794123807747445,0.9174109063213534,0.0,0.0
-0.9176897195569184,-0.17168764515577298,-0.6421775032196596,-0.32329861910316665,0.946296995073949,0.0,0.0
-0.7371835267217315,0.32163667448795147,-0.47708554647188084,-0.23898157764428124,0.9710241014241872,0.0,0.0
-0.47552366901205834,0.7362131187458456,-0.29297369451675875,-0.14652211590278474,0.9892073946101348,0.0,0.0
-0.16151526161829488,0.9705389152046093,-0.09718190589320902,-0.04859108903059024,0.9988187553639656,0.0,0.0
0.17027373220793154,0.9672429364932829,0.10248421864306498,0.051242286902734614,0.9986862510483349,0.0,0.0
0.48331795366796265,0.7271321531516752,0.2980646207896934,0.14907081465590288,0.988826522812685,0.0,0.0
0.7431555829863972,0.3089940590981371,0.4817621271027267,0.24134311035094883,0.9704398503184675,0.0,0.0
0.9211821070031706,-0.18479655716717844,0.646253297696493,0.32541713367286546,0.9455705627356091,0.0,0.0
0.9977992786806003,-0.6333425312327234,0.7849803886813105,0.39979131397788653,0.9166061887571101,0.0,0.0
0.964572611830959,-0.9268241650595153,0.8924127887182657,0.46401603399567953,0.885826800336793,0.0,0.0
0.8251599008686374,-0.9933869191569467,0.9642675070404277,0.5184179330962655,0.8551273862087426,0.0,0.0
0.594908548461427,-0.8167339098647604,0.997679922778967,0.5637848379010185,0.8259217012241065,0.0,0.0
0.2991660297126452,-0.4401159548467677,0.9913179883573677,0.6011036864297846,0.7991710443706799,0.0,0.0
-0.029510512704669815,0.044257735498252376,0.9454353340247703,0.6313815814841492,0.7754723067670274,0.0,0.0
-0.3549383576518463,0.5177955886508133,0.8618611564183268,0.655542119007749,0.7551586126151447,0.0,0.0
-0.6412924204486418,0.8645590229491764,0.743927294265638,0.6743756076195251,0.7383884748882504,0.0,0.0
-0.8570490969920057,0.9996482558795381,0.5963353984889201,0.6885221853287291,0.7252152785967427,0.0,0.0
-0.9784565746221131,0.8899887318188394,0.42496949221961,0.6984721494869901,0.7156372379851567,0.0,0.0
-0.9921495767209686,0.5624289267667438,0.23666139336428604,0.7045733635192386,0.7096311544874468,0.0,0.0
-0.8966206939893054,0.09716690504758436,0.03891835158374123,0.7070398017838748,0.707173754245319,0.0,0.0
-0.7023863292684921,-0.3918849638415085,-0.160376242060487,0.7059580310918695,0.7082536680716106,0.0,0.0
-0.4308289876882345,-0.7849897261162786,-0.353277141030248,0.7012900810768606,0.7128760216076918,0.0,0.0
-0.11184335991102108,-0.9859016259639831,-0.5320939952176322,0.6928721680637687,0.7210604404088554,0.0,0.0
0.21945466799406363,-0.9454304232544339,-0.689697940935389,0.6804095008367693,0.7328321166345388,0.0,0.0
0.5265937857553896,-0.6734848798934681,-0.8198058062157622,0.6634682686496771,0.7482044215954622,0.0,0.0
0.7757622434773755,-0.2366467493282453,-0.9172306010491341,0.6414672654418937,0.7671504072647678,0.0,0.0
0.9395300555699313,0.2581307588164473,-0.9780883063072141,0.6136738661637511,0.7895596152208105,0.0,0.0
0.9998686610871749,0.6897088545779327,-0.9999527173289652,0.5792126719681485,0.8151764720792167,0.0,0.0
0.9501356178235556,0.9524221683015063,-0.9819521690440836,0.5371002403528906,0.8435184241099106,0.0,0.0
0.7958058429196471,0.9819493183405064,-0.9248042865086724,0.48632506442271234,0.8737779647680781,0.0,0.0
0.5538689005459905,0.7710610285700272,-0.8307873754588468,0.4259950974439401,0.9047254704902077,0.0,0.0
0.2509586869176577,0.37139010731211436,-0.7036495934506543,0.3555683237386146,0.934650291367692,0.0,0.0
-0.07957859166428352,-0.11921006489861569,-0.5484595226462717,0.2751543870146699,0.9614000537271574,0.0,0.0
-0.40135537285987477,-0.5806234556258039,-0.3714041014380902,0.18582092940475559,0.9825836260569136,0.0,0.0
-0.6789485033850535,-0.8998799744648526,-0.17954197073898873,0.08977394854545839,0.995962167033747,0.0,0.0
-0.8817988360675502,-0.998814491143613,0.01947793175602438,-0.009738965921826565,0.9999525751468284,0.0,0.0
-0.9875753674035052,-0.8532043855172293,0.21772131057807897,-0.1088684869318973,0.9940561616695303,0.0,0.0
-0.9846335708069915,-0.4987000897730096,0.40728482780672554,-0.20383402343347456,0.979005460092497,0.0,0.0
-0.8732972972139946,-0.022096619278683942,0.5806111842123143,-0.29156674765673996,0.956550485683255,0.0,0.0
-0.6658231235935035,0.45991687426160227,0.730790404927901,-0.37008529146819735,0.9289977809655411,0.0,0.0
-0.3850510740993419,0.8293266768209027,0.8518353183414913,-0.4385289481699221,0.8987170642738357,0.0,0.0
-0.06189025071872073,0.9956883851154316,0.9389202457345932,-0.4969403661083772,0.8677846924969764,0.0,0.0
0.2680838294477106,0.9182708508872743,0.9885733858644359,-0.5459517051271247,0.8378166480016883,0.0,0.0
0.5685456043812348,0.6160285865463817,0.9988152247235795,-0.5864936917821392,0.8099537946696448,0.0,0.0
0.8064184068658304,0.1629610394708834,0.9692374525167017,-0.6195815208509379,0.7849323149291529,0.0,0.0
0.9555157460266217,-0.33000505353202975,0.9010192416836328,-0.6461821368378255,0.763183232278921,0.0,0.0
0.9994240761760944,-0.7421744001016999,0.7968802370152832,-0.6671448006961513,0.7449280602206448,0.0,0.0
0.9333097001669604,-0.9726335692893708,0.6609721319981323,-0.6831727710680774,0.7302567800925674,0.0,0.0
0.7644508922952884,-0.9649581189333869,0.4987131538963941,-0.694818000661127,0.7191856130077091,0.0,0.0
0.5114366614149235,-0.7210272669715825,0.31657205612916994,-0.7024865257500853,0.7116970430875591,0.0,0.0
0.2021203593127912,-0.3005637933500832,0.12181022948496767,-0.70644705386732,0.7077658935567493,0.0,0.0
-0.1294465863664193,0.19348817941227325,-0.07780778661437877,-0.7068385670879038,0.7073748935869288,0.0,0.0
-0.446763261240122,0.6401674977183369,-0.2743238517980932,-0.7036748077617778,0.7105221776422077,0.0,0.0
-0.7148975077677643,0.9301114859609416,-0.45990349068959124,-0.6968447416564776,0.7172220060941499,0.0,0.0
-0.9043314704963596,0.9923317436681922,-0.6271482287166843,-0.6861089163293334,0.7274988350048319,0.0,0.0
-0.9942111018653396,0.811594581746004,-0.7693905459455223,-0.6710924163166364,0.7413737038513697,0.0,0.0
-0.97464190312541,0.43215076086181514,-0.8809596900597733,-0.6512762214990166,0.7588407496372107,0.0,0.0
-0.847778171190198,-0.0530986380660329,-0.9574077513604116,-0.625990604207902,0.7798305991966625,0.0,0.0
-0.6275858404749718,-0.5253476385155728,-0.9956869868891794,-0.5944171993342581,0.8041568212330333,0.0,0.0
-0.3383050275409778,-0.8689732149170747,-0.994271324322658,-0.5556108789491498,0.8314424521236291,0.0,0.0
-0.011781531021117383,-0.9998438418065069,-0.9532172016599928,-0.5085582595728517,0.8610275817999281,0.0,0.0
0.3160389483876961,-0.885917825448659,-0.8741613172179755,-0.45229451666306414,0.891868639540894,0.0,0.0
0.6090679301910603,-0.5550882279566577,-0.7602553796340287,-0.3860986954413804,0.9224574772738656,0.0,0.0
0.8350469944354646,-0.08835367288212255,-0.6160404591886565,-0.3097701512866919,0.9508114709929724,0.0,0.0
0.9690989855910002,0.4000129427560235,-0.44726594966351785,-0.2239453486087983,0.97460170369053,0.0,0.0
0.9964666417661079,0.7904424390683988,-0.260660358154617,-0.13034965225694414,0.9914680873111821,0.0,0.0
0.9141371642245997,0.987344058653017,-0.06366306072743184,-0.03183154673713463,0.9994932479173241,0.0,0.0
0.7311738846708888,0.9425094178515073,0.13587228203056428,0.06793687134375688,0.9976896218323722,0.0,0.0
0.46771851834275896,0.6669156003948422,0.329990825673782,0.1650601657802439,0.986283499645309,0.0,0.0
0.15277384098516247,0.22803758446681607,0.510953676443654,0.25610859999572405,0.9666480150542028,0.0,0.0
-0.17898911383450708,-0.2666719852274808,0.6715464165412832,0.33862545989817183,0.9409212495787048,0.0,0.0
-0.491047853850463,-0.6960909524274645,0.8053667201986658,0.4112993606077307,0.9115003214281779,0.0,0.0
-0.7490490471033681,-0.955082577452527,0.9070795942033888,0.4738332029317537,0.8806146125289062,0.0,0.0
-0.9245903465310471,-0.9802366778478333,0.972630067242408,0.5266525393807193,0.8500806448589685,0.0,0.0
-0.9983470937967718,-0.7653946525566921,0.9994048488121371,0.5705948380185294,0.8212317156726282,0.0,0.0
-0.9621996957017276,-0.36315732224795383,0.9863365128641003,0.6066606698994735,0.7949608994140038,0.0,0.0
-0.8201274785937872,0.12799358610147818,0.933946052713032,0.6358485920038892,0.7718138169576078,0.0,0.0
-0.5877706198198406,0.5878072006408963,0.8443221106774906,0.6590621360567366,0.7520884926764481,0.0,0.0
-0.2907083814831635,0.903705111970614,0.7210377105017316,0.6770669088232643,0.7359214638645278,0.0,0.0
0.03835681095095393,0.9983444940722989,0.5690078121743521,0.6904775376103645,0.7233538346172831,0.0,0.0
0.36319945137636067,0.8485543255436181,0.39429336798354353,0.6997597650857519,0.7143782409670197,0.0,0.0
0.6480588780006316,0.49100846375515256,0.2038596914759308,0.7052383714813122,0.7089702669297118,0.0,0.0
0.8615760253988846,0.01324660552058789,0.005298772385602637,0.7071055403330707,0.7071080220378468,0.0,0.0
0.9802456219572225,-0.4677584837369352,-0.19347339203846847,0.7054268077505821,0.7087827727215323,0.0,0.0
0.9910037937272848,-0.8342399825282196,-0.3845323828625609,0.7001432510725221,0.7140024005405019,0.0,0.0
0.8926662154564946,-0.9964704384600542,-0.5602612810440533,0.6910695174632354,0.7227882968291137,0.0,0.0
0.6960584883449115,-0.9147301779353751,-0.7136543299570061,0.677888050231005,0.7351651456332832,0.0,0.0
0.42282439174922104,-0.6090320675218718,-0.8385962328010599,0.6601407962379886,0.7511418834962369,0.0,0.0
0.10304320376457471,-0.15422166624309427,-0.9301059501867618,0.637221152812495,0.7706809991224091,0.0,0.0
-0.22808160941352784,0.33834757760063844,-0.9845352784575762,0.608371371691837,0.7936524895102345,0.0,0.0
-0.5340978060484893,0.7480775341634341,-0.9997142920570232,0.5726944941454065,0.8197688798530577,0.0,0.0
-0.781317254260414,0.9746520202469203,-0.975037851613036,0.5291952037786744,0.8485001097805748,0.0,0.0
-0.9425245273294025,0.9625976995964054,-0.9114897289350986,0.4768696123134682,0.8789740456077202,0.0,0.0
-0.9999729440834475,0.7148658903162652,-0.8116033871367005,0.4148660934589973,0.9098824783993099,0.0,0.0
-0.9473382319475053,0.2921099792671752,-0.6793609794557579,0.34272979170554235,0.9394340263570804,0.0,0.0
-0.7904147414931815,-0.20216464239820275,-0.5200345933714359,0.26071150571827334,0.9654167549748195,0.0,0.0
-0.5464775689395888,-0.6469423088661069,-0.3399760691134747,0.17006347652451265,0.9854331098316094,0.0,0.0
-0.2423808080561534,-0.933325935221779,-0.14636377183645888,0.07318294684903542,0.9973185330126436,0.0,0.0
0.08839871248753149,-0.9911988217552068,0.05308358714605824,-0.026541800168321323,0.9996477043658054,0.0,0.0
0.4094467628768973,-0.8063916674555276,0.2504146710240084,-0.12522322647242226,0.9921285922459026,0.0,0.0
0.68542041296566,-0.424151709070136,0.4377625121974489,-0.21916038937827423,0.9756888457533802,0.0,0.0
0.8859387978787574,0.0619353805036276,0.6076581434490431,-0.3054505133327349,0.9522079520276906,0.0,0.0
0.9889276291648549,0.5328585288581931,0.7533283620975045,-0.38230696745916887,0.9240353795348822,0.0,0.0
0.9830492672850307,0.8733193252573889,0.8689657562142357,-0.4490406782378098,0.8935113145829369,0.0,0.0
0.8689508382163493,0.9999610927573088,0.9499602278107246,-0.5058158819319468,0.8626414629412423,0.0,0.0
0.65919299387207,0.8817775098879226,0.9930827828972584,-0.5533335314485167,0.8329597847283584,0.0,0.0
0.3768671588265146,0.5477040395322044,0.9966142612836164,-0.5925511841161529,0.8055328014442026,0.0,0.0
0.05305348526993529,0.07953351845283306,0.9604138740707601,-0.6244831986212077,0.7810382414708162,0.0,0.0
-0.27660063996245104,-0.40810958177221934,0.8859248164599484,-0.6500802023724936,0.75986560027635,0.0,0.0
-0.5758048774451502,-0.7958332230601787,0.7761167321143073,-0.6701680661511933,0.7422093795629169,0.0,0.0
-0.8116209973649744,-0.9887091356890289,0.6353673228372269,-0.6854245629427281,0.7281436455224821,0.0,0.0
-0.9580889210247008,-0.9395145694646093,0.4692878234161781,-0.6963765742751649,0.7176765753462946,0.0,0.0
-0.9990845648539871,-0.660294069919136,0.28449929939886515,-0.7034064328780895,0.7107878658121014,0.0,0.0
-0.9300948780045254,-0.21941055349670321,0.08836868610400143,-0.7067605681149037,0.7074528248285524,0.0,0.0
-0.7587146665502766,0.2751923186322931,-0.11128490784231361,-0.7065566929658138,0.7076564418029504,0.0,0.0
-0.5038105108506022,0.7024185134924622,-0.3065019236928175,-0.7027876512815107,0.7113996887869841,0.0,0.0
